ply
format ascii 1.0
element vertex 1317
property float x
property float y
property float z
property uchar blue
property uchar green
property uchar red
end_header
5.22749 -0.463114 9.25909 181 185 203
5.12819 0.239701 9.02708 190 190 202
5.12819 0.239701 9.02708 190 190 202
5.12582 0.253336 9.01723 75 64 84
5.14309 0.190951 9.054 184 180 205
5.22616 -0.38884 9.24215 170 172 182
5.22616 -0.38884 9.24215 170 172 182
5.15723 0.0538325 9.08237 185 193 200
5.15723 0.0538325 9.08237 185 193 200
5.17689 -0.0443667 9.1231 89 89 89
5.16057 0.078455 9.0842 168 174 193
5.16016 0.0935158 9.08094 68 65 91
5.00155 1.22803 8.71716 135 154 181
5.15351 0.133399 9.06144 178 177 186
5.15351 0.133399 9.06144 178 177 186
5.13321 0.22685 9.01575 57 47 77
5.14982 0.1663 9.05202 155 168 182
5.22198 -0.364458 9.21474 180 181 191
5.1742 0.0116318 9.09735 72 66 85
5.04813 0.906298 8.80777 78 74 86
5.26269 -0.618099 9.29479 177 178 192
5.17333 0.0655667 9.08912 88 81 88
5.13668 0.388511 9.00143 68 65 74
5.14483 0.283278 9.0188 80 78 98
5.26673 -0.593425 9.29542 190 194 212
5.25854 -0.510737 9.27375 161 161 175
5.22116 -0.234597 9.18777 60 61 89
5.14529 0.289692 9.01334 62 60 89
5.25217 -0.496819 9.25625 82 80 99
5.13476 0.376712 8.98569 175 179 190
5.17244 0.134559 9.06774 168 172 190
5.15201 0.251934 9.01898 53 57 76
5.15201 0.251934 9.01898 53 57 76
5.21213 -0.16565 9.15402 163 174 204
5.16372 0.23088 9.04065 56 56 74
5.16372 0.23088 9.04065 56 56 74
5.17377 0.16195 9.06125 168 174 193
5.10622 0.656739 8.9012 79 76 85
5.10622 0.656739 8.9012 79 76 85
5.19239 0.0217177 9.09721 184 180 192
5.15484 0.297473 9.01064 168 170 194
5.22649 -0.178284 9.16881 79 72 93
5.17547 0.0859542 9.0544 62 65 79
5.17547 0.0859542 9.0544 62 65 79
5.21892 -0.107886 9.14227 155 157 191
5.25859 -0.411724 9.23135 186 186 200
5.25857 -0.386741 9.23063 172 168 187
5.15672 0.308169 8.99776 71 64 97
4.97491 1.70852 8.58046 115 139 161
5.17546 0.241851 9.03522 168 178 195
5.17546 0.241851 9.03522 168 178 195
5.08542 0.882332 8.83059 71 65 96
5.25737 -0.39915 9.22084 83 78 80
5.20913 0.00874932 9.10848 69 68 88
5.20784 0.0215798 9.1024 187 186 188
5.20784 0.0215798 9.1024 187 186 188
5.16992 0.284572 9.01449 84 81 106
5.16992 0.284572 9.01449 84 81 106
5.19622 0.190539 9.07234 187 194 214
5.19622 0.190539 9.07234 187 194 214
5.25403 -0.308204 9.19934 166 165 191
5.27584 -0.436407 9.24551 162 169 184
5.19471 0.176678 9.06028 83 78 99
5.22756 -0.16318 9.1354 176 180 181
5.16834 0.332038 8.99648 59 55 60
5.19623 0.134913 9.05792 182 182 200
5.17436 0.299277 9.00715 155 165 189
5.2021 0.148504 9.06627 57 51 76
5.2021 0.148504 9.06627 57 51 76
5.20813 0.120219 9.0766 75 68 81
5.26538 -0.253621 9.20498 173 176 191
5.26538 -0.253621 9.20498 173 176 191
5.1739 0.319025 8.99897 164 173 182
5.21865 0.10559 9.0945 176 176 190
5.19971 0.200829 9.05026 58 55 80
5.22437 0.0214486 9.10194 185 182 197
5.21826 0.0761778 9.08191 177 183 194
5.20963 0.191781 9.06063 192 197 212
5.29532 -0.460121 9.25487 175 175 181
5.25832 -0.192565 9.16882 163 174 202
5.27019 -0.266626 9.1934 68 60 90
5.19131 0.309313 9.01251 72 70 90
5.19131 0.309313 9.01251 72 70 90
5.20053 0.274206 9.03106 174 185 205
5.19729 0.216003 9.02276 170 173 178
5.21332 0.161487 9.05486 180 188 205
5.23113 0.106885 9.08778 168 182 201
5.24461 -0.057028 9.11627 175 178 193
5.20659 0.246559 9.02298 161 174 190
5.21697 0.136623 9.04583 172 172 188
5.22139 0.191825 9.05318 157 165 182
5.27163 -0.135529 9.15971 156 153 175
5.23755 0.0993855 9.08167 50 40 57
5.27085 -0.163763 9.15697 161 164 178
5.24235 0.0263886 9.0904 173 178 203
5.22864 0.176959 9.05852 83 80 106
5.24518 0.0468489 9.09539 156 178 196
5.2281 0.27059 9.04999 178 187 201
5.2623 -0.069455 9.12664 78 73 72
5.23962 0.0804331 9.0741 177 179 190
5.28149 -0.149056 9.16596 76 74 103
5.22235 0.285167 9.03177 76 77 91
5.26748 -0.082872 9.13315 187 187 187
5.27388 -0.109833 9.14364 181 190 199
5.24287 0.106561 9.07098 164 174 191
5.33591 -0.477944 9.27489 170 179 192
5.24478 0.159975 9.06614 170 181 195
5.22146 0.290986 9.01272 65 60 75
5.23915 0.259091 9.04557 86 80 85
5.31798 -0.372868 9.22316 45 51 74
5.31798 -0.372868 9.22316 45 51 74
5.2839 -0.0569221 9.14308 177 180 194
5.2454 0.191828 9.05508 173 179 198
5.26861 0.0254558 9.10464 176 169 196
5.28686 -0.119807 9.14192 77 78 98
5.23905 0.230761 9.03449 72 67 76
5.23279 0.284894 9.01985 150 181 184
5.29151 -0.134479 9.1512 182 182 198
5.24327 0.216889 9.04227 175 177 185
5.28821 -0.105282 9.1411 150 150 162
5.27872 -0.0264324 9.11927 175 181 200
5.3303 -0.382088 9.23423 184 188 207
5.29283 -0.0825204 9.14677 172 183 191
5.33944 -0.370136 9.23642 64 59 80
5.24627 0.282082 9.02416 68 66 78
5.24627 0.282082 9.02416 68 66 78
5.28965 -0.0678049 9.12073 62 60 79
5.28965 -0.0678049 9.12073 62 60 79
5.30317 -0.0935018 9.14582 67 62 89
5.29773 -0.0518705 9.13319 182 184 194
5.26416 0.191018 9.05703 163 162 188
5.24209 0.361982 9.00755 71 65 84
5.24209 0.361982 9.00755 71 65 84
5.33273 -0.292011 9.20331 69 70 80
5.26266 0.242012 9.04387 188 186 198
5.26266 0.242012 9.04387 188 186 198
5.28648 0.0662567 9.09531 70 66 95
5.63426 -0.583813 9.83619 58 63 61
5.30403 -0.0399312 9.12698 66 67 95
5.31209 -0.0815649 9.14124 169 179 197
5.25467 0.30515 9.01348 63 68 71
5.28924 0.037739 9.08701 66 70 88
5.32603 -0.1481 9.15894 73 68 95
5.28326 0.192901 9.05999 172 175 190
5.28326 0.192901 9.05999 172 175 190
5.27927 0.23076 9.04352 70 60 73
5.27927 0.23076 9.04352 70 60 73
5.25774 0.383957 8.99372 60 60 76
5.30088 0.0811831 9.08838 182 183 211
5.32939 -0.0676351 9.14095 66 60 77
5.32939 -0.0676351 9.14095 66 60 77
5.33372 -0.122422 9.14493 65 65 77
5.28053 0.271441 9.02631 179 179 179
5.64765 -0.50481 9.79973 87 89 90
5.31456 0.0813 9.09406 168 168 192
5.31961 -0.0396962 9.10581 75 72 98
5.29219 0.221812 9.04313 161 168 185
5.30746 0.124232 9.0751 66 64 86
5.29571 0.204787 9.04714 76 73 95
5.29571 0.204787 9.04714 76 73 95
5.18143 1.03849 8.7934 62 57 66
5.28518 0.363956 9.01906 58 57 83
5.32187 0.135231 9.08158 166 168 192
5.3185 0.166534 9.06894 165 179 197
5.30314 0.274198 9.03267 188 191 195
5.30147 0.298848 9.02767 164 173 177
5.31858 0.191641 9.064 167 174 194
5.29582 0.314622 9.01448 72 71 73
5.31884 0.223124 9.05474 164 169 190
5.33558 0.126712 9.08553 64 62 81
5.6093 -2.19041 9.68969 165 159 160
5.33121 0.231617 9.04835 69 66 82
5.33579 0.220693 9.05417 168 167 177
5.31544 0.367411 9.00763 70 60 90
5.31544 0.367411 9.00763 70 60 90
5.27118 0.683964 8.90682 77 74 100
5.21637 1.08947 8.7822 52 50 56
5.33422 0.284512 9.03062 60 68 81
5.33125 0.314606 9.02301 65 64 68
5.33978 0.341186 9.02418 80 80 86
5.34223 0.303869 9.02433 172 188 195
5.34641 0.35507 9.01534 154 161 170
5.68712 -0.168334 9.71423 154 157 172
5.74794 -0.552186 9.84364 76 78 86
5.63768 0.205853 9.60057 156 153 168
5.63453 0.258511 9.57755 147 149 167
5.69747 -0.156767 9.71317 61 63 74
5.74047 -0.182931 9.74593 73 79 90
5.64446 0.444477 9.53287 147 148 169
5.60822 -2.15254 9.49596 141 128 130
5.69855 0.16924 9.6204 76 75 91
5.68587 0.326571 9.56532 43 45 69
5.68587 0.326571 9.56532 43 45 69
5.73235 0.1854 9.64753 156 177 178
5.70641 0.302296 9.59169 69 60 70
5.66409 0.720232 9.47131 83 79 90
5.75247 0.174406 9.65329 70 74 75
5.82989 -0.469613 9.81885 79 75 86
5.82989 -0.469613 9.81885 79 75 86
5.87956 -0.519655 9.84232 84 79 88
5.782 0.468799 9.59927 63 70 63
5.88034 0.347528 9.70697 47 45 44
5.8864 0.334268 9.68888 171 187 186
5.71338 1.16904 9.32555 47 48 58
5.76574 1.39713 9.32802 23 25 26
5.78148 1.37286 9.34058 26 25 21
5.88005 1.40899 9.34507 151 159 159
5.95075 0.781116 9.48104 79 70 80
6.14657 -0.431878 9.87049 83 76 83
6.14657 -0.431878 9.87049 83 76 83
6.08955 0.471899 9.73178 43 44 40
5.96151 0.805377 9.45681 77 80 85
6.00521 0.807731 9.47964 81 74 87
6.00521 0.807731 9.47964 81 74 87
6.19088 -0.1086 9.77235 77 72 87
6.00118 1.40523 9.38595 34 30 29
6.19346 -0.0930618 9.7595 151 152 166
6.21791 -0.108002 9.79469 64 59 74
6.34675 -0.833798 10.0181 77 70 75
6.08978 0.702106 9.51103 67 66 70
6.08978 0.702106 9.51103 67 66 70
6.01295 1.42034 9.35431 10 23 25
6.23628 -0.00108621 9.73719 79 75 81
6.20523 0.358039 9.62284 151 153 163
6.20522 0.460089 9.59918 156 157 178
6.22141 0.359984 9.62392 157 161 179
6.25961 0.333203 9.66409 162 158 177
6.24955 0.435616 9.61833 162 162 168
6.26201 0.333409 9.64207 165 165 181
6.30481 0.159968 9.71719 52 48 60
6.30481 0.159968 9.71719 52 48 60
6.29001 0.224879 9.6869 170 178 195
6.2957 0.198643 9.69333 143 156 170
6.31283 0.17157 9.7055 155 175 186
6.29757 0.1871 9.66609 57 52 73
6.3265 0.108784 9.71409 80 75 84
6.31684 0.202418 9.69291 144 157 179
6.3098 0.321418 9.66721 64 65 69
6.3098 0.321418 9.66721 64 65 69
6.32952 0.173313 9.69855 157 162 171
6.31767 0.278793 9.65971 165 174 184
6.31258 0.42646 9.64373 76 73 82
6.31166 0.346879 9.63837 77 65 95
6.31166 0.346879 9.63837 77 65 95
6.37788 -0.0763802 9.76267 68 62 79
6.19546 1.18005 9.41408 35 34 44
6.36531 0.0574316 9.73299 65 65 77
6.36531 0.0574316 9.73299 65 65 77
6.33744 0.26632 9.67458 65 64 73
6.32691 0.334194 9.64434 168 166 188
6.30917 0.447707 9.60519 69 74 77
6.30917 0.447707 9.60519 69 74 77
6.34729 0.310059 9.66346 152 160 183
6.36681 0.199517 9.69684 157 158 178
6.34093 0.374784 9.64733 69 65 77
6.31009 0.550796 9.58949 80 70 86
6.38405 0.136244 9.71776 72 65 78
6.35649 0.34774 9.65244 65 61 80
6.38702 0.188841 9.70816 67 67 79
6.40309 0.165041 9.72167 48 46 65
6.40309 0.165041 9.72167 48 46 65
6.36221 0.451184 9.63742 64 59 80
6.36845 0.373448 9.64676 71 61 84
6.36845 0.373448 9.64676 71 61 84
6.38547 0.282694 9.67182 177 173 198
6.35805 0.427094 9.6173 76 73 95
6.35329 0.501259 9.60441 88 76 96
6.35329 0.501259 9.60441 88 76 96
6.40777 0.269959 9.69069 71 68 84
6.39549 0.390493 9.6566 168 174 181
6.38481 0.403635 9.63669 53 45 56
6.4021 0.41852 9.65992 174 175 189
6.4021 0.41852 9.65992 174 175 189
6.45237 0.0984854 9.75258 173 177 196
6.4024 0.361295 9.6577 165 164 184
6.40396 0.376611 9.64415 67 60 81
6.40825 0.430465 9.64295 69 65 77
6.40825 0.430465 9.64295 69 65 77
6.40825 0.430465 9.64295 69 65 77
6.46156 0.204846 9.73228 164 170 183
6.3935 0.476583 9.60183 75 65 81
6.42651 0.420155 9.65641 173 177 195
6.47695 0.060373 9.74904 73 66 81
6.4274 0.366569 9.65258 162 169 178
6.51936 -0.0982545 9.81839 103 96 99
6.58474 -0.414983 9.93788 68 55 69
6.42098 0.404995 9.63526 67 62 91
6.44896 0.324848 9.68202 76 63 79
6.49028 0.0721967 9.75211 180 176 188
6.48368 0.113063 9.73991 80 72 83
6.42112 0.527323 9.61191 75 64 96
6.42112 0.527323 9.61191 75 64 96
6.44649 0.37836 9.65774 83 79 91
6.50025 0.102273 9.74974 152 165 181
6.45359 0.42795 9.64664 76 71 73
6.45359 0.42795 9.64664 76 71 73
38.1196 -13.8134 -74.9844 20 19 23
38.0351 -13.8851 -75.3358 27 25 24
-2.0253 -0.796737 8.82589 178 187 200
-2.02519 -0.813663 8.8258 89 84 105
-1.80484 0.569432 8.49564 75 71 82
-1.9059 -0.235931 8.73222 97 99 99
-1.9116 -0.723978 8.79896 76 73 89
-1.90114 -0.749838 8.8163 84 81 97
-1.90217 -0.821876 8.84537 187 186 190
-1.90217 -0.821876 8.84537 187 186 190
-1.70445 0.0818725 8.63613 74 74 86
-1.70507 -0.0536203 8.67267 71 71 83
-1.68079 -0.0424812 8.65804 168 180 204
-1.65097 -0.083336 8.66796 78 81 102
-1.64002 -0.23971 8.71269 172 181 191
-1.68725 -0.856053 8.87645 90 85 100
-1.58737 -0.0248416 8.6728 170 175 200
-1.6119 -0.306908 8.72145 75 70 85
-1.56465 0.0873358 8.63322 67 67 97
-1.56303 0.0568252 8.64977 73 67 98
-1.63291 -0.767572 8.84814 79 74 101
-1.57416 -0.648846 8.85395 75 66 87
-1.46557 0.158949 8.62153 156 162 181
-1.55582 -0.606828 8.8265 184 183 209
-1.47943 -0.0349302 8.66986 173 170 186
-1.4972 -0.218318 8.73728 85 80 82
-1.53989 -0.616964 8.82982 85 81 106
-1.50958 -0.644823 8.83205 95 85 101
-1.46118 -0.301336 8.7417 75 71 83
-1.46118 -0.301336 8.7417 75 71 83
-1.39653 0.206973 8.61397 65 66 80
-1.47688 -0.408394 8.79938 169 173 201
-1.48573 -0.478677 8.82451 85 85 91
-1.48573 -0.478677 8.82451 85 85 91
-1.47548 -0.505244 8.8042 90 83 110
-1.44237 -0.479788 8.80576 73 73 85
-1.46717 -0.703704 8.86215 95 89 100
-1.39439 -0.216922 8.73088 78 77 87
-1.37104 -0.0737919 8.70377 80 79 83
-1.37104 -0.0737919 8.70377 80 79 83
-1.37104 -0.0737919 8.70377 80 79 83
-1.47065 -0.967129 8.93616 87 90 111
-1.37897 -0.391404 8.78208 92 87 116
-1.38822 -0.547907 8.82791 185 185 191
-1.36606 -0.472692 8.80968 72 73 87
-1.21833 0.640353 8.52982 85 77 88
-1.2367 0.324071 8.61271 73 75 85
-1.2367 0.324071 8.61271 73 75 85
-1.33201 -0.788012 8.89873 83 81 101
-1.23785 0.0685127 8.68306 63 59 70
-1.26233 -0.272941 8.76836 79 79 95
-1.24841 -0.398319 8.8011 174 182 211
-1.24841 -0.398319 8.8011 174 182 211
-1.24192 -1.06055 8.97596 166 173 182
-1.03871 0.50084 8.59532 62 63 84
-1.23673 -1.76376 9.18834 69 68 72
-1.08175 -0.632955 8.89955 78 80 80
-0.934797 0.67754 8.56837 78 70 93
-0.927331 0.559468 8.62032 60 67 82
-0.878044 -0.718505 8.96122 91 93 104
-0.917853 -1.32775 9.22544 76 79 84
-0.652174 -0.122059 8.82869 152 161 181
-0.690289 -0.769057 8.99937 93 86 107
-0.583056 0.28302 8.70821 82 72 84
-0.575486 0.228615 8.72927 83 76 97
-0.594463 -0.141796 8.81979 144 157 179
-0.58024 -0.215846 8.84434 87 81 112
-0.559526 -0.0035467 8.78824 154 166 194
-0.543525 0.127446 8.76457 149 163 182
-0.545565 -0.0496265 8.80715 69 68 78
-0.545565 -0.0496265 8.80715 69 68 78
-0.659516 -1.37356 9.18693 74 68 91
-0.570335 -0.533699 8.94195 80 71 98
-0.570335 -0.533699 8.94195 80 71 98
-0.512404 -0.128505 8.82542 68 70 100
-0.512404 -0.128505 8.82542 68 70 100
-0.499288 -0.0494747 8.81298 78 74 86
-0.448536 0.345493 8.71444 87 79 86
-0.462751 0.0465294 8.78014 156 164 194
-0.4699 -0.0477312 8.84391 65 69 98
-0.457559 0.0082369 8.8034 68 67 83
-0.470645 -0.142871 8.8509 164 160 179
-0.425645 0.177918 8.77085 82 70 88
-0.483137 -0.531921 8.96115 77 75 104
-0.483137 -0.531921 8.96115 77 75 104
-0.449939 -0.167393 8.86384 177 176 208
-0.467647 -0.562757 8.96188 71 66 75
-0.454977 -0.442345 8.93482 93 90 116
-0.395562 0.260702 8.75244 81 77 89
-0.395562 0.260702 8.75244 81 77 89
-0.406717 -0.114879 8.84408 157 159 183
-0.39768 -0.0183873 8.82209 80 74 99
-0.439045 -0.557602 8.96624 69 67 96
-0.433885 -0.573177 8.98971 163 175 199
-0.39467 -0.413793 8.92889 83 85 109
-0.394718 -0.569238 8.9699 166 164 194
-0.394718 -0.569238 8.9699 166 164 194
-0.348882 -0.497171 8.9616 101 95 120
-0.341982 -0.386762 8.96059 70 66 85
-0.322291 -0.297282 8.90028 83 75 98
-0.384014 -1.10346 9.13486 97 87 99
-0.779205 -2.71832 10.6445 136 121 129
-0.779768 -2.86131 10.6828 131 117 119
-0.781801 -2.88891 10.6909 127 116 119
-0.7789 -2.94114 10.6943 129 121 122
-0.31667 -0.498726 8.96922 69 66 92
-0.746452 -2.69112 10.6113 200 221 219
-0.768811 -2.92811 10.6892 212 209 211
-0.774568 -2.96001 10.714 205 210 213
-0.774568 -2.96001 10.714 205 210 213
-0.306615 -0.511725 8.95846 163 177 200
-0.334605 -0.800694 9.0709 152 168 191
-0.771355 -3.09235 10.7326 211 215 210
-0.781511 -3.22903 10.7832 124 101 116
-0.744644 -2.82605 10.6628 94 86 93
-0.771615 -3.1797 10.7594 212 219 216
-0.775976 -3.30263 10.7945 217 209 210
-0.775976 -3.30263 10.7945 217 209 210
-0.725818 -2.75554 10.6407 218 226 226
-0.767577 -3.35634 10.7948 218 215 217
-0.782276 -3.52826 10.8619 124 98 104
-0.810342 -3.89017 10.9674 139 116 130
-0.787411 -3.64543 10.9045 132 111 120
-0.734022 -3.02469 10.7215 99 92 97
-0.732389 -3.00842 10.7165 199 218 215
-0.769211 -3.50712 10.8405 221 216 215
-0.809091 -3.94571 10.9807 147 110 118
-0.747613 -3.22296 10.7725 100 89 97
-0.70973 -2.71419 10.6498 89 79 91
-0.287628 -0.67374 9.02856 51 57 70
-0.794358 -3.86507 10.935 238 227 230
-0.790373 -3.73691 10.9433 134 101 115
-0.796376 -3.83813 10.9624 115 98 102
-0.727514 -3.04105 10.7328 213 220 223
-0.750713 -3.34748 10.817 95 91 102
-0.750713 -3.34748 10.817 95 91 102
-0.734599 -3.1919 10.7614 113 101 107
-0.254144 -0.341005 8.94025 164 169 194
-0.731768 -3.15241 10.7578 211 220 217
-0.772224 -3.59151 10.9012 116 99 110
-0.740023 -3.25711 10.7899 102 87 95
-0.740023 -3.25711 10.7899 102 87 95
-0.704789 -2.82575 10.6781 94 88 105
-0.689593 -2.69601 10.6294 200 214 212
-0.702655 -2.87785 10.675 96 92 98
-0.776002 -3.74365 10.9288 214 222 221
-0.705546 -2.93487 10.6935 102 103 113
-0.697794 -2.75981 10.6722 228 236 235
-0.772044 -3.85734 10.9208 212 216 211
-0.774766 -3.84565 10.9378 222 219 221
-0.766375 -3.72383 10.9103 116 99 110
-0.766375 -3.72383 10.9103 116 99 110
-0.689785 -2.74075 10.654 92 81 89
-0.754214 -3.59442 10.872 235 249 247
-0.75676 -3.73865 10.9247 225 239 235
-0.675151 -2.70983 10.6467 82 77 92
-0.762169 -3.77858 10.9481 212 217 215
-0.67754 -2.76816 10.6654 105 97 104
-0.74892 -3.69875 10.9091 122 112 118
-0.695658 -3.05 10.7292 102 95 110
-0.752444 -3.88965 10.9441 218 223 221
-0.701507 -3.27837 10.7786 102 97 99
-0.745615 -3.8726 10.9377 104 97 104
-0.738311 -3.68775 10.9186 225 228 226
-0.755996 -3.96496 10.978 193 190 186
-0.755996 -3.96496 10.978 193 190 186
-0.656813 -2.69441 10.6434 207 221 227
-0.692305 -3.29097 10.7853 228 247 252
-0.672745 -2.99762 10.7333 109 98 118
-0.710517 -3.5256 10.8751 99 92 105
-0.687814 -3.30777 10.7974 90 74 97
-0.675914 -3.1242 10.7587 223 231 231
-0.721194 -3.69973 10.9256 117 115 114
-0.647305 -2.80737 10.6783 179 192 190
-0.22935 -0.682645 9.03104 164 175 197
-0.693095 -3.44424 10.8365 233 237 232
-0.64197 -2.79051 10.6638 114 108 119
-0.64197 -2.79051 10.6638 114 108 119
-0.652342 -2.85462 10.7065 99 100 110
-0.63704 -2.69057 10.6522 217 229 223
-0.7178 -3.77235 10.9409 228 233 231
-0.668361 -3.23278 10.7707 220 222 222
-0.674948 -3.29403 10.7957 213 226 224
-0.63014 -2.70837 10.6597 101 96 111
-0.63014 -2.70837 10.6597 101 96 111
-0.686529 -3.55422 10.8822 115 107 117
-0.653886 -3.23441 10.7846 244 246 246
-0.615459 -2.69602 10.6595 201 216 219
-0.633418 -2.95317 10.7211 179 195 207
-0.639788 -3.08933 10.7566 181 186 195
-0.682912 -3.67642 10.9139 226 234 227
-0.626428 -2.93549 10.7211 110 94 117
-0.691814 -3.90611 10.9759 96 101 100
-0.630442 -3.10711 10.7663 93 87 112
-0.645395 -3.36432 10.8214 104 94 100
-0.600807 -2.82488 10.6647 194 212 223
-0.675577 -3.7528 10.9388 114 89 103
-0.612974 -2.98916 10.7204 93 92 108
-0.657184 -3.55335 10.8856 92 79 81
-0.613224 -3.01828 10.7335 98 94 105
-0.591073 -2.70501 10.6619 98 88 100
-0.618964 -3.12842 10.7569 92 81 89
-0.676388 -3.91048 10.9613 212 226 222
-0.676388 -3.91048 10.9613 212 226 222
-0.673838 -3.85061 10.9553 171 182 180
-0.673838 -3.85061 10.9553 171 182 180
-0.615023 -3.11581 10.7643 207 221 227
-0.605847 -3.00607 10.7447 193 211 212
-0.624915 -3.30511 10.8201 97 86 94
-0.613183 -3.26222 10.8013 238 249 247
-0.61322 -3.28402 10.8059 226 239 237
-0.630358 -3.51661 10.867 102 95 100
-0.580819 -2.87075 10.6922 85 79 90
-0.592971 -2.99355 10.7388 121 119 119
-0.572085 -2.7471 10.6672 214 227 229
-0.647246 -3.72391 10.9356 104 94 100
-0.647246 -3.72391 10.9356 104 94 100
-0.585634 -2.92066 10.7307 203 215 221
-0.585634 -2.92066 10.7307 203 215 221
-0.593665 -3.03929 10.7702 195 212 215
-0.648324 -3.86028 10.9704 211 222 220
-0.619239 -3.5015 10.8696 214 225 223
-0.590499 -3.10552 10.7768 89 83 102
-0.590499 -3.10552 10.7768 89 83 102
-0.556925 -2.69929 10.6571 100 94 99
-0.590984 -3.17339 10.7834 183 187 198
-0.579458 -3.04555 10.75 94 90 101
-0.636829 -3.77283 10.9619 215 226 224
-0.588721 -3.21824 10.797 99 89 95
-0.634086 -3.85079 10.963 185 194 191
-0.573578 -3.07468 10.7636 97 86 112
-0.550709 -2.77544 10.6874 227 234 237
-0.603587 -3.53216 10.8815 191 196 199
-0.563759 -3.00087 10.7404 218 231 229
-0.546258 -2.81293 10.6874 106 97 110
-0.546258 -2.81293 10.6874 106 97 110
-0.585399 -3.38471 10.8271 96 76 88
-0.569962 -3.14498 10.7803 233 239 244
-0.541363 -2.84715 10.7171 112 112 126
-0.541363 -2.84715 10.7171 112 112 126
-0.564327 -3.27643 10.8311 100 83 94
-0.533453 -2.955 10.7254 120 115 116
-0.58028 -3.57487 10.9013 98 94 99
-0.539907 -3.0188 10.7562 89 80 93
-0.539907 -3.0188 10.7562 89 80 93
-0.128152 -0.721931 9.06903 67 65 84
-0.588174 -3.78563 10.9408 198 199 203
-0.538348 -3.05922 10.7635 208 217 220
-0.538348 -3.05922 10.7635 208 217 220
-0.554702 -3.28822 10.8245 224 237 235
-0.556601 -3.31393 10.8323 185 206 204
-0.595917 -3.87482 10.9823 120 101 118
-0.595917 -3.87482 10.9823 120 101 118
-0.526988 -2.90182 10.7355 105 105 111
-0.538483 -3.12541 10.7736 93 83 96
-0.568322 -3.52886 10.8849 216 222 227
-0.560715 -3.41987 10.8592 118 102 120
-0.560715 -3.41987 10.8592 118 102 120
-0.553347 -3.3497 10.844 225 231 230
-0.512888 -2.82928 10.7063 212 230 237
-0.539918 -3.188 10.8054 94 82 94
-0.539918 -3.188 10.8054 94 82 94
-0.567986 -3.59953 10.9064 110 102 109
-0.507457 -2.75627 10.6877 106 100 111
-0.527391 -3.069 10.7581 89 91 92
-0.527391 -3.069 10.7581 89 91 92
-0.392685 0.378409 10.3801 43 48 49
-0.567444 -3.70897 10.916 124 119 120
-0.564901 -3.70624 10.9079 124 119 120
-0.483845 -3.07417 10.6009 93 83 96
-0.55775 -3.57572 10.9144 95 77 84
-0.511636 -3.05613 10.7574 217 222 225
-0.501758 -2.95715 10.7378 95 91 110
-0.545889 -3.62425 10.9098 109 91 104
-0.492398 -2.86354 10.7207 206 219 221
-0.492398 -2.86354 10.7207 206 219 221
-0.52187 -3.3513 10.8314 98 84 90
-0.517605 -3.23226 10.8229 230 243 241
-0.555942 -3.78838 10.9642 219 224 225
-0.553936 -3.74429 10.9586 101 86 90
-0.515795 -3.25514 10.8239 224 229 232
-0.501427 -3.03267 10.7734 204 203 205
-0.501427 -3.03267 10.7734 204 203 205
-0.49578 -3.04087 10.7572 90 86 92
-0.385333 0.19371 10.4681 176 188 192
-0.37143 0.381531 10.4503 38 37 39
-0.48535 -3.00044 10.7608 211 225 221
-0.510087 -3.52705 10.8545 110 95 103
-0.495275 -3.22969 10.8283 205 228 220
-0.494981 -3.27884 10.8296 210 215 218
-0.491936 -3.25558 10.8184 237 232 234
-0.487924 -3.28591 10.8004 111 97 101
-0.527186 -3.80974 10.9529 95 77 90
-0.527186 -3.80974 10.9529 95 77 90
-0.478754 -3.09894 10.7871 103 93 99
-0.508477 -3.58301 10.9094 233 237 238
-0.447371 -2.72321 10.6919 92 88 99
-0.453734 -2.89542 10.7323 105 91 97
-0.480014 -3.25875 10.8433 209 217 216
-0.487316 -3.46108 10.8744 215 226 224
-0.487316 -3.46108 10.8744 215 226 224
-0.4458 -2.7719 10.7298 189 199 199
-0.514984 -3.86665 10.9869 95 92 94
-0.510861 -3.82976 10.972 223 220 222
-0.441203 -2.85519 10.7229 197 198 208
-0.485003 -3.53279 10.8828 105 95 101
-0.521454 -3.97513 11.03 140 98 121
-0.433189 -2.71149 10.7011 222 227 228
-0.466692 -3.26721 10.8275 99 89 105
-0.500247 -3.68793 10.966 93 87 92
-0.464187 -3.22594 10.83 213 231 238
-0.447734 -3.06746 10.7794 91 92 102
-0.471712 -3.50401 10.8788 114 91 99
-0.471712 -3.50401 10.8788 114 91 99
-0.427608 -2.86376 10.7289 110 99 107
-0.427608 -2.86376 10.7289 110 99 107
-0.414382 -2.71756 10.6796 113 107 118
-0.440798 -3.09806 10.8009 95 86 96
-0.4863 -3.86212 10.9814 124 114 120
-0.472576 -3.62259 10.933 105 91 97
-0.450472 -3.33285 10.851 213 240 237
-0.406238 -2.7193 10.6933 110 104 115
-0.467411 -3.56822 10.9267 84 80 92
-0.467411 -3.56822 10.9267 84 80 92
-0.408578 -2.77598 10.7058 98 95 104
-0.479662 -3.81784 10.9829 97 75 87
-0.417816 -2.94048 10.7529 208 216 216
-0.474155 -3.73714 10.9687 102 92 98
-0.436428 -3.32147 10.8542 86 66 79
-0.419932 -3.12129 10.7988 90 85 86
-0.43916 -3.41049 10.8754 234 239 240
-0.440054 -3.4461 10.8883 128 111 120
-0.385512 -2.69027 10.6928 102 99 114
-0.441444 -3.5357 10.9052 99 87 93
-0.441444 -3.5357 10.9052 99 87 93
-0.00682355 -0.603652 9.03991 88 79 99
-0.45556 -3.76346 10.9735 98 84 96
-0.410571 -3.12413 10.8188 88 85 87
-0.414818 -3.18276 10.8354 96 84 90
-0.414628 -3.22657 10.8423 243 247 248
-0.414409 -3.27696 10.8389 231 233 233
-0.414409 -3.27696 10.8389 231 233 233
-0.394162 -3.00177 10.7747 240 245 244
-0.369048 -2.68552 10.6904 209 211 221
-0.414697 -3.41984 10.8618 214 219 220
-0.407934 -3.29115 10.8438 88 78 84
-0.391751 -3.0516 10.7899 212 218 217
-0.408841 -3.32048 10.8625 88 81 88
-0.408841 -3.32048 10.8625 88 81 88
-0.437201 -3.77499 10.9715 205 216 213
-0.433919 -3.80819 10.9851 95 86 89
-0.392736 -3.22624 10.8351 211 217 216
-0.367575 -2.85871 10.7388 221 223 231
-0.367575 -2.85871 10.7388 221 223 231
-0.356275 -2.74394 10.705 100 93 100
-0.356275 -2.74394 10.705 100 93 100
-0.443318 -3.96093 11.0549 205 199 194
-0.378417 -3.06504 10.801 110 97 111
-0.393432 -3.269 10.8655 90 83 90
-0.393432 -3.269 10.8655 90 83 90
-0.421795 -3.76328 10.9836 122 107 111
-0.37552 -3.0829 10.807 209 221 221
-0.350863 -2.79702 10.7106 106 103 105
-0.350863 -2.79702 10.7106 106 103 105
-0.347116 -2.72969 10.7039 206 222 229
-0.355607 -2.92166 10.7616 112 100 112
-0.373623 -3.19704 10.835 223 235 235
-0.342096 -2.71686 10.7166 88 91 105
-0.372619 -3.21467 10.836 191 211 212
-0.372619 -3.21467 10.836 191 211 212
-0.341689 -2.74622 10.719 89 85 96
-0.341689 -2.74622 10.719 89 85 96
-0.341242 -2.82406 10.7247 85 77 88
-0.341242 -2.82406 10.7247 85 77 88
-0.338988 -2.77216 10.7177 96 95 99
-0.338988 -2.77216 10.7177 96 95 99
-0.34249 -2.8019 10.7347 92 89 98
-0.34249 -2.8019 10.7347 92 89 98
-0.376702 -3.4001 10.8619 124 108 119
-0.349324 -2.94035 10.7776 226 231 240
-0.349324 -2.94035 10.7776 226 231 240
-0.342341 -2.85976 10.7538 94 92 114
-0.342341 -2.85976 10.7538 94 92 114
-0.34938 -2.96977 10.7832 221 219 219
-0.351897 -3.02416 10.7957 218 221 225
-0.351897 -3.02416 10.7957 218 221 225
-0.342264 -2.89103 10.7577 110 100 117
-0.354882 -3.14681 10.8161 101 90 98
-0.34443 -2.95442 10.7805 90 83 86
-0.34443 -2.95442 10.7805 90 83 86
-0.34443 -2.95442 10.7805 90 83 86
-0.374164 -3.44383 10.8998 244 247 245
-0.344657 -2.98602 10.7938 113 106 109
0.0837154 0.173869 8.91594 31 33 33
-0.370755 -3.53348 10.9169 110 99 102
-0.369781 -3.51672 10.9182 233 237 232
-0.342905 -3.21747 10.8293 212 219 212
-0.342905 -3.21747 10.8293 212 219 212
-0.330798 -2.99402 10.7944 242 255 253
-0.33948 -3.23257 10.8408 80 72 79
-0.33948 -3.23257 10.8408 80 72 79
-0.33948 -3.23257 10.8408 80 72 79
-0.33948 -3.23257 10.8408 80 72 79
-0.368091 -3.69572 10.9556 107 87 99
-0.360662 -3.56405 10.9404 96 90 91
-0.353451 -3.50309 10.9094 104 94 100
-0.36127 -3.61341 10.9417 108 94 100
-0.341088 -3.28965 10.864 97 99 99
-0.341088 -3.28965 10.864 97 99 99
-0.339627 -3.31198 10.8575 98 91 98
-0.342582 -3.34245 10.8771 101 98 113
-0.338165 -3.34869 10.8554 225 227 228
-0.362633 -3.63751 10.9749 225 231 230
-0.362633 -3.63751 10.9749 225 231 230
-0.36567 -3.73431 10.9899 122 110 116
-0.362626 -3.71737 10.9864 226 237 227
-0.34576 -3.47751 10.9223 116 106 112
-0.34576 -3.47751 10.9223 116 106 112
-0.366917 -3.78077 11.0126 209 215 210
0.11024 0.153286 8.91953 40 41 37
-0.349021 -3.68496 10.9613 197 203 202
-0.343111 -3.58716 10.9447 93 89 95
-0.357815 -3.85962 11.0151 126 105 113
-0.350361 -3.762 10.9991 103 101 113
-0.344339 -3.77841 11.0205 240 242 242
-0.333147 -3.82381 10.9903 110 97 105
-0.33603 -3.80677 11.0093 89 84 85
0.109413 -0.742298 9.09204 90 84 95
-0.396235 -3.62447 11.5122 91 86 88
-0.396235 -3.62447 11.5122 91 86 88
-0.411767 -3.57313 11.6351 134 100 117
0.223043 0.335694 8.87242 226 230 225
0.204638 -0.624828 9.06581 84 86 104
0.241066 -0.371535 9.0479 57 83 95
0.322546 0.420612 8.80016 185 188 192
0.221245 -1.28342 9.31933 68 76 76
0.295461 -0.419181 9.0145 54 68 86
0.402769 0.11494 8.90049 66 68 92
0.434342 0.00602426 8.93302 60 55 76
0.416801 -0.331852 9.01741 69 73 92
0.434427 -0.220959 9.00351 72 68 87
0.436151 -0.220787 8.99712 72 68 87
0.436151 -0.220787 8.99712 72 68 87
0.476651 0.308525 8.83192 55 62 81
0.476651 0.308525 8.83192 55 62 81
0.472177 0.141422 8.88707 63 65 75
0.489643 0.0887403 8.91677 66 63 88
0.4919 0.115227 8.90964 65 72 89
0.469183 -0.531337 9.07907 81 79 99
0.544818 -2.38544 8.83681 101 90 93
0.813239 -0.271933 8.53981 177 193 209
0.837396 0.0607712 8.4541 61 69 92
0.815685 -0.489524 8.61217 162 170 187
0.815685 -0.489524 8.61217 162 170 187
0.853605 -0.016808 8.47722 85 79 114
0.856157 -0.291101 8.55136 74 76 84
0.801266 -1.60034 8.92844 193 197 202
0.801266 -1.60034 8.92844 193 197 202
0.916846 0.919165 8.21687 148 169 184
0.888458 0.120874 8.44199 167 184 197
0.888458 0.120874 8.44199 167 184 197
0.886849 0.033209 8.46393 65 67 85
0.897316 0.0478473 8.46627 174 185 213
0.910198 0.15996 8.41205 179 185 198
1.03751 1.15827 7.47653 79 144 118
0.901461 -0.495238 8.61198 77 78 99
0.901461 -0.495238 8.61198 77 78 99
0.904174 -0.51119 8.61796 180 178 197
0.933562 0.148394 8.43734 75 74 90
0.931963 0.0354245 8.46867 80 77 93
0.941078 0.124916 8.44264 67 69 87
0.91745 -0.569839 8.63161 173 178 199
0.927751 -0.348723 8.5657 77 77 95
0.942084 -0.100245 8.51212 72 69 94
0.950443 0.0380006 8.47088 164 174 191
0.91728 -0.829778 8.70733 80 74 91
0.957125 0.149285 8.45414 77 78 98
0.965172 0.121021 8.45182 75 73 93
0.971938 0.0549389 8.48788 172 181 214
0.950217 -0.654185 8.66635 176 190 212
0.96899 -0.346821 8.55185 80 77 99
0.991955 0.177837 8.43651 79 78 104
0.938959 -1.23157 8.85604 98 101 99
0.973788 -0.47893 8.6212 139 158 195
0.998792 0.0908441 8.46682 83 87 106
0.978951 -0.607932 8.65768 81 78 103
1.02057 0.177667 8.45007 68 69 65
0.991025 -0.66255 8.67027 95 101 108
0.991025 -0.66255 8.67027 95 101 108
0.955752 -1.66839 8.96633 84 83 99
0.955752 -1.66839 8.96633 84 83 99
1.00824 -0.402035 8.60797 93 82 120
1.00584 -0.538307 8.64544 174 179 204
1.01569 -0.310982 8.58083 79 79 109
1.0246 -0.257818 8.56316 78 74 93
1.00308 -0.935972 8.74294 93 89 100
1.00308 -0.935972 8.74294 93 89 100
1.01244 -0.660662 8.68169 91 95 100
1.01244 -0.660662 8.68169 91 95 100
1.02373 -0.521516 8.63682 81 78 104
1.03297 -0.286755 8.57395 92 91 123
1.02695 -0.618827 8.67101 167 179 215
1.06002 0.0884749 8.46037 76 70 101
1.06002 0.0884749 8.46037 76 70 101
1.04941 -0.230669 8.55128 63 65 73
1.02266 -0.92436 8.76509 167 181 200
1.0641 -0.428833 8.61139 82 80 100
1.08559 0.152057 8.45509 72 74 104
1.0067 -2.35236 9.09833 55 55 55
1.08724 -0.413273 8.60657 183 185 216
1.04992 -1.43164 8.91174 93 87 110
1.11336 0.183503 8.44227 61 60 92
1.11336 0.183503 8.44227 61 60 92
1.09444 -0.44281 8.61788 174 183 217
1.13372 0.24743 8.4358 84 84 108
1.13372 0.24743 8.4358 84 84 108
1.06943 -1.62692 8.96259 96 96 112
1.12547 -0.149199 8.5412 181 190 204
1.0988 -0.906172 8.76299 92 86 109
1.13114 -0.0251968 8.5089 168 171 192
1.12785 -0.225502 8.5687 85 89 113
1.14368 0.0702001 8.49229 66 63 78
1.09317 -1.48647 8.94099 102 96 115
1.09247 -1.60063 8.96323 85 87 95
1.14565 -0.106972 8.53794 174 181 220
1.14176 -0.487168 8.64133 88 86 98
1.11246 -1.36491 8.88317 103 101 120
1.14533 -0.486204 8.62329 88 86 98
1.14468 -0.470467 8.6347 161 171 189
1.14375 -0.56773 8.66854 66 68 102
1.16357 -0.136447 8.55282 182 187 212
1.1498 -0.518291 8.66907 82 75 96
1.13866 -1.0468 8.79815 95 94 126
1.13866 -1.0468 8.79815 95 94 126
1.17108 -0.251976 8.57985 74 80 115
1.17108 -0.251976 8.57985 74 80 115
1.17488 -0.144323 8.55547 70 75 106
1.1846 0.0185235 8.50448 72 65 108
1.17701 -0.265691 8.59464 189 187 216
1.17701 -0.265691 8.59464 189 187 216
1.17485 -0.48847 8.65984 93 89 118
1.17901 -0.567052 8.67468 79 78 112
1.20919 0.212016 8.45372 68 63 92
1.2023 -0.116761 8.54702 73 76 104
1.21888 0.207489 8.46297 156 169 195
1.18179 -0.989166 8.79374 86 89 104
1.20895 -0.224656 8.56998 82 79 101
1.20625 -0.310902 8.59568 71 74 105
1.19722 -0.577384 8.6767 82 87 112
1.20805 -0.296273 8.60338 188 188 212
1.21378 -0.172773 8.55965 71 72 100
1.22247 0.0724533 8.49306 72 67 99
1.18082 -1.2175 8.86099 104 106 106
1.22078 -0.198685 8.56203 88 85 101
1.22143 -0.254112 8.60727 64 63 89
1.2354 -0.0752328 8.51829 171 178 211
1.23432 -0.149041 8.55604 61 59 88
1.22778 -0.52736 8.67167 183 184 210
1.25543 0.0332723 8.51827 190 190 206
1.26058 -0.0349663 8.52756 82 75 108
1.27057 0.0352361 8.49566 146 143 169
1.25841 -0.367866 8.63426 81 73 90
1.25564 -0.556182 8.67089 174 173 215
1.2733 0.0213808 8.51086 71 71 95
1.28207 0.271924 8.44406 72 75 90
1.28105 -0.0365345 8.53042 174 183 197
1.28374 -0.0227972 8.53899 196 197 223
1.29443 -0.00683869 8.51581 74 75 85
1.27911 -0.56742 8.69106 164 163 195
1.29505 -0.0347987 8.54998 70 65 104
1.29619 -0.193971 8.58063 96 89 104
1.29862 -0.0881616 8.56853 66 59 94
1.28927 -0.624896 8.70243 92 86 109
1.28018 -1.18257 8.86977 88 89 103
1.2686 -1.58899 8.9879 83 84 94
1.28355 -1.18017 8.85063 88 89 103
1.33336 0.275452 8.45565 80 73 110
1.30572 -0.762264 8.74518 83 87 115
1.32243 -0.22218 8.59268 97 89 106
1.29579 -1.18358 8.86846 93 86 107
1.32566 -0.279398 8.60553 88 86 108
1.342 0.261532 8.45597 198 208 226
1.34515 0.188386 8.46598 72 76 111
1.27956 -2.71004 9.07089 190 194 195
1.34115 -0.0184891 8.54484 187 191 215
1.33265 -0.466391 8.6662 176 180 198
1.314 -1.15276 8.85825 94 94 100
1.33864 -0.353749 8.63203 172 183 213
1.33864 -0.353749 8.63203 172 183 213
1.35296 0.105769 8.50116 83 80 96
1.36863 0.404655 8.42843 179 177 213
1.35677 -0.221678 8.58933 73 71 107
1.36045 -0.0747284 8.56033 177 184 211
1.35359 -0.36514 8.63471 87 87 93
1.37611 0.281874 8.44177 76 81 106
1.32993 -1.679 9.03211 90 95 110
1.37389 -0.198207 8.5863 80 77 92
1.37639 -0.127777 8.57817 189 201 225
1.37818 -0.152356 8.5783 193 187 212
1.38728 0.168834 8.48987 74 78 106
1.37737 -0.305209 8.62443 95 91 103
1.37737 -0.305209 8.62443 95 91 103
1.37737 -0.305209 8.62443 95 91 103
1.40194 -0.204701 8.59119 176 185 212
1.40332 -0.139695 8.58202 182 187 208
1.41323 0.0682672 8.52193 169 171 205
1.40965 -0.165045 8.5788 80 79 105
1.41295 -0.0316056 8.55727 73 72 98
1.41295 -0.0316056 8.55727 73 72 98
1.41463 -0.031561 8.54724 73 72 98
1.41463 -0.031561 8.54724 73 72 98
1.35802 -2.56749 9.22034 42 44 44
1.43352 0.477171 8.40852 72 72 102
1.43352 0.477171 8.40852 72 72 102
1.43974 0.621237 8.36805 73 71 101
1.43974 0.621237 8.36805 73 71 101
1.38424 -1.61406 9.00357 98 95 104
1.43314 0.170049 8.49569 62 65 86
1.43314 0.170049 8.49569 62 65 86
1.40888 -0.920839 8.79419 83 83 99
1.40888 -0.920839 8.79419 83 83 99
1.43409 0.0832882 8.51985 76 68 78
1.42027 -0.476274 8.6858 72 65 92
1.39866 -1.58777 9.01198 93 93 105
1.42769 -0.592789 8.71524 88 83 104
1.44497 -0.150511 8.59396 210 211 221
1.45511 0.169996 8.48965 60 60 84
1.45567 -0.0985433 8.57031 183 189 202
1.45469 -0.138925 8.58561 67 67 85
1.4316 -1.20986 8.90623 106 108 109
1.45484 -0.40358 8.66267 176 185 218
1.44235 -0.923588 8.83175 98 96 118
1.46369 -0.0693602 8.56205 174 173 199
1.46934 0.0836958 8.52481 75 70 102
1.47189 0.00945263 8.54619 175 184 211
1.47904 0.0243953 8.54253 75 73 103
1.47904 0.0243953 8.54253 75 73 103
1.48759 0.140949 8.50633 72 70 100
1.48616 -0.082619 8.56903 82 82 100
1.49686 0.31827 8.46279 70 71 97
1.49024 -0.138732 8.59672 93 96 127
1.49024 -0.138732 8.59672 93 96 127
1.49782 0.150581 8.50819 174 178 202
1.47546 -0.919556 8.8184 93 85 108
1.49179 -0.559663 8.7099 96 89 122
1.49179 -0.559663 8.7099 96 89 122
1.47657 -1.32452 8.94742 93 94 92
1.51701 0.448085 8.42563 87 86 118
1.51701 0.448085 8.42563 87 86 118
1.49998 -0.34533 8.65972 200 198 217
1.50767 -0.159481 8.59632 74 73 105
1.50168 -0.586319 8.73296 86 89 97
1.51027 -0.305356 8.62195 69 72 87
1.50809 -0.472335 8.6852 165 176 203
1.52107 0.0429603 8.55167 173 170 196
1.53479 0.196999 8.49763 78 76 112
1.5326 0.0156555 8.54717 153 160 185
1.54062 -0.0146598 8.54849 165 167 197
1.53859 -0.186024 8.59881 83 72 112
1.54765 0.119081 8.54365 74 80 93
1.55531 0.0460128 8.5401 161 174 200
1.55719 0.028057 8.53483 77 76 116
1.55068 -0.37587 8.6626 179 185 208
1.55068 -0.37587 8.6626 179 185 208
1.56274 -0.209157 8.61264 74 79 112
1.56403 -0.302549 8.6427 100 97 112
1.58834 0.958075 8.30233 46 53 70
1.56183 -0.435752 8.68632 73 75 83
1.57073 0.000654404 8.55365 81 85 109
1.57073 0.000654404 8.55365 81 85 109
1.55736 -0.793287 8.78979 192 195 199
1.55736 -0.793287 8.78979 192 195 199
1.56893 -0.368866 8.66283 173 171 200
1.56145 -0.964635 8.84369 208 210 210
1.57592 -0.287398 8.63205 175 189 217
1.58093 -0.0521612 8.58908 71 68 83
1.58366 0.04375 8.55068 139 147 177
1.59601 0.509456 8.41331 71 71 111
1.59601 0.509456 8.41331 71 71 111
1.56894 -0.952492 8.82266 65 67 78
1.57403 -0.66452 8.75204 161 162 183
1.57403 -0.66452 8.75204 161 162 183
1.56976 -1.02749 8.86519 93 97 108
1.58402 -0.300587 8.64803 95 89 100
1.58301 -0.35619 8.66965 83 76 103
1.56133 -1.51246 9.00232 180 193 209
1.57187 -1.08123 8.88214 89 89 107
1.60152 0.300499 8.4565 188 190 191
1.58902 -0.791487 8.79347 202 202 220
1.60646 -0.69449 8.77169 81 81 105
1.60646 -0.69449 8.77169 81 81 105
1.60646 -0.69449 8.77169 81 81 105
1.6374 -0.466273 8.73966 82 92 110
1.6367 -0.829446 8.80417 97 90 117
1.60758 -2.71073 9.29983 48 46 46
1.65862 0.229581 8.59282 48 49 47
1.72482 -0.716596 8.774 82 78 113
1.7069 -2.73106 9.32284 35 39 34
1.75921 0.647142 8.39932 170 180 214
1.74614 -0.906306 8.84997 93 92 118
1.78208 0.480532 8.44936 87 90 95
1.75492 -2.24772 9.01849 81 76 77
1.78267 -0.734555 8.79598 68 64 89
1.78678 -0.671121 8.77719 193 207 229
1.78832 -0.68608 8.78112 95 91 97
1.8007 -0.768644 8.81706 80 79 99
1.81332 -0.756306 8.81956 186 193 210
1.86605 -0.871475 8.85383 84 84 100
1.85633 -2.8571 9.39101 36 36 36
1.877 -0.668161 8.79326 196 202 215
1.88324 -0.699092 8.81783 187 187 201
1.89279 -0.668686 8.81252 184 182 211
1.89776 -0.699083 8.8167 196 203 218
1.90838 0.334356 8.49273 48 51 59
1.9127 0.0584687 7.5778 187 205 204
1.92191 -0.661707 8.7938 169 179 197
1.94695 -0.733197 8.8161 90 90 96
1.97323 -0.896794 8.88476 99 104 125
1.97834 -0.814024 8.85384 90 86 111
1.99801 -0.861731 8.87594 68 75 108
2.0064 0.68593 8.42032 74 78 96
2.00284 -0.877685 8.88022 182 198 215
2.01688 -0.735787 8.83566 77 73 98
2.03464 1.37937 8.34569 45 47 41
2.03464 1.37937 8.34569 45 47 41
2.03453 0.605954 8.44117 81 73 103
2.03176 -0.85486 8.87277 190 197 214
2.03258 -0.715187 8.81225 190 188 217
2.04171 1.23341 8.37878 47 45 45
2.03636 -1.35348 9.089 69 73 84
2.04766 -0.717609 8.83543 213 213 231
2.05283 0.265851 8.62073 167 179 197
2.06001 -0.731272 8.83494 197 198 208
2.06211 -0.452414 8.8087 60 80 97
2.07947 -0.837821 8.87147 81 76 97
2.08108 -0.886926 8.88545 72 81 101
2.10702 -1.08969 8.96597 71 73 84
2.11567 -1.08226 8.96226 188 187 207
2.12495 -0.945893 8.90615 206 207 205
2.12768 -0.425279 8.77484 93 89 114
2.13236 -0.642455 8.81986 184 189 204
2.13207 -0.219968 8.70275 77 75 81
2.13247 0.165704 8.59142 54 59 80
2.13451 -0.351543 8.74101 183 182 208
2.13501 -0.0616513 8.65581 92 91 101
2.14415 -1.50162 9.10036 85 80 107
2.14195 -0.327581 8.73064 185 189 217
2.14449 -0.813345 8.86489 80 78 97
2.14566 0.331058 8.52451 198 200 200
2.15243 -2.33392 9.35011 64 65 79
2.14899 -0.808429 8.87294 96 90 121
2.15111 -0.0618001 8.64895 85 81 92
2.15786 -0.0876289 8.65529 65 60 99
2.16175 -0.963044 8.92331 180 184 203
2.16027 -0.33777 8.73425 187 188 214
2.16141 0.189012 8.583 69 65 114
2.16516 -0.050638 8.64727 188 188 212
2.16652 -0.505819 8.78337 101 90 130
2.16664 -0.0795858 8.65419 179 180 214
2.16853 0.268856 8.55204 154 165 197
2.17092 -0.395596 8.75839 77 74 106
2.17092 -0.395596 8.75839 77 74 106
2.17467 -0.162021 8.67658 72 81 114
2.1768 -0.427382 8.78124 77 77 117
2.17792 0.72641 8.42557 87 80 113
2.18366 -0.474982 8.78537 93 88 119
2.1872 -1.08173 8.97151 192 199 219
2.18686 -0.741054 8.8545 94 104 122
2.18762 -0.00497559 8.63952 194 195 221
2.18785 0.289118 8.55159 168 179 199
2.19436 -0.911203 8.90466 86 85 101
2.19034 0.228638 8.55478 154 162 191
2.19323 -0.284137 8.71885 68 72 101
2.19883 -0.947433 8.92651 80 79 105
2.20264 -1.4958 9.09477 93 89 100
2.19589 -0.0846517 8.6424 79 70 96
2.20024 -0.166705 8.68604 83 84 88
2.20024 -0.166705 8.68604 83 84 88
2.20093 -0.218686 8.70663 99 95 130
2.20487 -1.21726 8.99775 196 205 209
2.20487 -1.21726 8.99775 196 205 209
2.20254 0.0468844 8.63578 68 67 76
2.20254 0.0468844 8.63578 68 67 76
2.21047 -0.823737 8.88936 174 187 209
2.21295 -0.874004 8.90598 174 190 219
2.21156 -0.323647 8.73542 186 203 216
2.21011 0.0917916 8.60525 182 178 190
2.21897 -1.4963 9.0975 86 84 96
2.21425 0.117224 8.59656 160 177 204
2.21664 0.191898 8.57907 81 82 86
2.21892 -0.191288 8.6971 85 79 98
2.22333 -0.519378 8.78244 180 183 191
2.22749 -0.876536 8.92307 170 186 215
2.22749 -0.876536 8.92307 170 186 215
2.22849 -0.531711 8.79619 69 68 100
2.23439 -1.23254 9.02711 91 91 127
2.23439 -1.23254 9.02711 91 91 127
2.2308 0.273741 8.56039 86 86 100
2.23489 -0.087751 8.6783 77 67 120
2.24164 -1.29319 9.03849 85 85 103
2.2359 0.00806181 8.65376 181 188 203
2.23698 -0.334773 8.73215 69 71 82
2.23698 -0.334773 8.73215 69 71 82
2.24129 -0.618139 8.83718 89 82 109
2.24401 -0.492681 8.79452 201 200 220
2.24392 -0.112506 8.68194 63 67 85
2.2447 -0.0162716 8.65804 179 183 207
2.24699 -0.391327 8.75756 81 78 104
2.24699 -0.391327 8.75756 81 78 104
2.24768 -0.504595 8.78343 66 65 74
2.24768 -0.504595 8.78343 66 65 74
2.24822 -0.390543 8.73883 81 78 104
2.24822 -0.390543 8.73883 81 78 104
2.25109 -0.47626 8.77497 106 97 137
2.25106 -0.210992 8.70422 71 72 106
2.25317 -0.00460925 8.65461 70 71 92
2.25436 -0.132939 8.68676 56 62 75
2.25414 0.240703 8.57553 75 76 90
2.25888 -0.459752 8.78228 181 192 219
2.25996 -0.389254 8.76275 181 191 221
2.25803 0.0200393 8.62946 81 90 124
2.26617 0.138683 8.60528 65 64 90
2.2737 -0.3898 8.77812 89 82 119
2.2737 -0.3898 8.77812 89 82 119
2.2737 -0.3898 8.77812 89 82 119
2.27774 -0.230256 8.72783 179 177 206
2.2785 -0.0400364 8.66762 178 183 208
2.2785 -0.0400364 8.66762 178 183 208
2.28152 0.247967 8.58994 78 71 92
2.28862 -0.221097 8.72068 55 55 67
2.2934 -0.549277 8.82145 164 174 198
2.29073 0.301353 8.56652 55 53 65
2.29673 -0.663578 8.81112 71 66 98
2.30652 -0.362774 8.76255 79 76 108
2.30652 -0.362774 8.76255 79 76 108
2.30612 -0.154056 8.70197 170 180 204
2.30757 -0.0828264 8.68411 83 80 119
2.30547 0.304762 8.56475 75 78 93
2.30747 0.264434 8.56917 179 185 208
2.31158 -0.136021 8.69947 65 61 80
2.32607 -1.38075 9.08562 74 76 94
2.32755 -1.48862 9.12089 93 95 106
2.32755 -1.48862 9.12089 93 95 106
2.31572 -0.0563962 8.67387 87 86 118
2.31572 -0.0563962 8.67387 87 86 118
2.31872 -0.156018 8.7052 67 69 93
2.32523 -0.287577 8.73849 199 202 223
2.31882 0.647184 8.46509 71 77 106
2.33248 -0.296799 8.74552 64 66 77
2.33015 0.0824898 8.63293 192 200 223
2.33015 0.0824898 8.63293 192 200 223
2.33498 -0.172714 8.72182 179 189 219
2.33162 0.198631 8.59996 68 75 92
2.33162 0.198631 8.59996 68 75 92
2.35851 -1.06054 8.98906 94 90 95
2.35547 -0.508094 8.81481 76 82 119
2.35219 -0.056913 8.6821 68 77 97
2.35852 -0.328502 8.76705 82 87 88
2.35852 -0.328502 8.76705 82 87 88
2.35741 -0.234941 8.72919 75 81 110
2.35823 -0.215344 8.73313 84 81 96
2.3531 0.294252 8.57406 183 183 213
2.36705 -0.556007 8.83158 84 83 115
2.35299 0.963961 8.37051 172 183 197
2.36788 -0.445228 8.79225 94 89 128
2.3702 -0.502214 8.8188 88 87 113
2.37755 -0.892986 8.93198 176 190 208
2.36977 -0.158647 8.70656 72 80 109
2.37251 -0.392176 8.78034 82 83 103
2.38027 -0.943062 8.95093 99 96 121
2.36794 0.340619 8.56841 84 92 109
2.36794 0.340619 8.56841 84 92 109
2.37292 -0.163323 8.71035 56 56 86
2.37238 -0.0753826 8.6884 75 79 108
2.37353 -0.150525 8.71248 71 73 107
2.3755 -0.297728 8.75125 79 75 86
2.3755 -0.297728 8.75125 79 75 86
2.37513 -0.2256 8.73186 185 192 217
2.37862 -0.500996 8.81623 200 188 216
2.3823 -0.717848 8.8721 76 70 95
2.3823 -0.717848 8.8721 76 70 95
2.37825 -0.0301111 8.66452 53 56 84
2.38165 -0.188254 8.72583 75 77 95
2.38165 -0.188254 8.72583 75 77 95
2.3824 -0.156869 8.71011 177 180 194
2.38626 -0.306323 8.75799 55 57 68
2.38578 -0.0660118 8.69134 177 191 227
2.3952 -0.879884 8.92484 87 81 104
2.39831 -0.328184 8.76793 93 83 95
2.40607 -0.528711 8.83855 87 86 106
2.39907 0.1594 8.61658 174 185 207
2.4192 -1.34535 9.09651 85 86 96
2.40556 -0.312891 8.7587 191 198 215
2.40556 -0.312891 8.7587 191 198 215
2.406 -0.298483 8.75516 81 83 91
2.4079 -0.234115 8.74233 92 91 123
2.41447 -0.705223 8.89028 157 161 185
2.39765 0.704332 8.4625 156 164 194
2.42034 -0.386881 8.7855 184 182 204
2.4174 -0.061797 8.68482 184 191 211
2.41863 -0.137094 8.71201 79 81 115
2.43682 -1.37299 9.10332 90 85 112
2.41858 0.0517025 8.65763 66 70 98
2.4296 -0.678818 8.87771 178 187 196
2.43055 -0.386325 8.78555 82 75 102
2.43916 -0.907385 8.94709 196 200 211
2.42769 0.125315 8.64208 203 203 219
2.45345 -1.4 9.09986 77 74 100
2.45345 -1.4 9.09986 77 74 100
2.45806 -0.89287 8.9521 190 193 207
2.44398 0.114527 8.63835 80 81 115
2.45782 -0.32374 8.77939 180 182 192
2.46293 -0.591532 8.85248 148 169 214
2.47991 -1.48136 9.14861 94 97 105
2.4662 -0.299817 8.76845 66 64 94
2.46374 0.0278716 8.66193 73 70 92
2.48473 -1.23619 9.0663 197 204 223
2.48473 -1.23619 9.0663 197 204 223
2.46277 0.32987 8.58695 79 76 101
2.46277 0.32987 8.58695 79 76 101
2.47462 -0.473713 8.82396 101 92 112
2.47462 -0.473713 8.82396 101 92 112
2.46138 0.499338 8.52736 72 70 106
2.48769 -1.22142 9.06283 83 79 104
2.48769 -1.22142 9.06283 83 79 104
2.46856 0.145316 8.62744 70 71 97
2.50122 -1.40182 9.12506 95 100 109
2.49298 -0.593519 8.86964 174 191 224
2.47612 0.588731 8.5145 150 155 180
2.49902 -0.686896 8.91973 65 68 82
2.47976 0.471846 8.5383 68 64 89
2.48368 0.281033 8.59818 67 66 105
2.48368 0.281033 8.59818 67 66 105
2.49104 -0.213677 8.7416 188 192 211
2.485 0.593054 8.51359 53 58 79
2.49707 -0.183635 8.73214 93 93 93
2.50767 -0.688445 8.89196 74 74 90
2.51492 -1.16322 9.03165 101 98 123
2.51105 -0.592498 8.86468 185 192 217
2.51105 -0.592498 8.86468 185 192 217
2.51092 -0.509735 8.83675 181 187 224
2.51658 -0.693896 8.89207 202 206 230
2.51577 -0.566584 8.86701 199 201 225
2.51225 -0.267396 8.76244 84 82 82
2.53114 -1.24755 9.07863 98 98 116
2.50959 -0.102529 8.68622 80 78 97
2.51167 0.0893146 8.65254 75 77 108
2.51167 0.0893146 8.65254 75 77 108
2.52261 -0.396171 8.78881 180 192 226
2.51846 0.211455 8.62225 177 180 201
2.53771 -0.850805 8.94398 78 81 95
2.53738 -0.795061 8.93247 96 97 125
2.54538 -1.14323 9.03348 175 184 211
2.54862 -1.24404 9.07433 85 82 97
2.53012 -0.171567 8.73456 178 185 212
2.54684 -1.1189 9.03012 195 207 235
2.54111 -0.446022 8.82279 78 67 100
2.55431 -1.1664 9.04774 80 80 104
2.54235 -0.213173 8.75563 87 83 102
2.54743 -0.38169 8.80135 186 189 210
2.55747 -0.903883 8.96895 83 80 89
2.5649 -1.16676 9.05391 69 73 97
2.54971 -0.292946 8.77968 64 65 93
2.54363 0.444741 8.55787 59 61 91
2.55916 -0.41615 8.81903 80 75 106
2.56002 -0.475123 8.82602 84 86 121
2.56082 -0.441212 8.82563 86 87 107
2.56082 -0.441212 8.82563 86 87 107
2.57589 -1.0184 9.00398 105 107 137
2.57116 -0.658834 8.90238 84 92 122
2.56111 -0.0429781 8.72105 87 97 121
2.56335 -0.23974 8.76077 80 75 102
2.57612 -0.590469 8.87258 184 179 211
2.5769 -0.685807 8.88898 88 87 121
2.57907 -0.510003 8.8613 188 193 208
2.59799 -1.35126 9.12298 188 197 207
2.58347 -0.613664 8.88245 171 167 186
2.56848 0.226509 8.62662 179 178 210
2.58541 -0.647212 8.89333 170 184 207
2.58352 -0.252049 8.77137 179 192 224
2.59137 -0.482804 8.84336 193 199 222
2.59657 -0.762079 8.91885 88 83 110
2.58158 0.269503 8.6292 162 178 201
2.59751 -0.656467 8.88483 82 80 116
2.60059 -0.750553 8.92727 174 186 214
2.60992 -0.862269 8.9735 181 185 209
2.59254 -0.0227676 8.66884 64 73 100
2.58649 0.550476 8.53417 183 188 189
2.59801 0.0496129 8.68207 184 189 220
2.61741 -0.818499 8.961 72 69 94
2.59918 0.0889945 8.67281 72 75 103
2.60714 -0.205754 8.76239 180 182 200
2.59908 0.299493 8.60988 183 191 220
2.618 -0.518163 8.85187 76 81 114
2.6286 -0.82924 8.95572 178 192 220
2.61299 0.0479106 8.68601 168 173 204
2.62852 -0.505775 8.85462 174 178 206
2.59484 0.992676 8.36183 197 200 204
2.60846 0.551277 8.53545 187 191 196
2.63409 -0.586203 8.86659 167 174 207
2.62713 -0.12175 8.73649 79 80 106
2.64226 -0.76231 8.92933 101 99 121
2.63492 -0.278572 8.79389 191 189 209
2.62712 0.175451 8.6475 188 195 210
2.62882 0.334596 8.59906 80 86 105
2.64095 -0.205598 8.7628 200 202 212
2.65109 -0.541356 8.87269 70 85 111
2.61555 1.0868 8.35789 178 184 191
2.6392 0.09315 8.67065 89 83 114
2.65893 -0.736305 8.92496 99 97 116
2.65893 -0.736305 8.92496 99 97 116
2.66 -0.682624 8.90172 82 87 118
2.66 -0.682624 8.90172 82 87 118
2.65925 -0.547767 8.87364 179 196 223
2.63583 0.580273 8.53635 151 165 164
2.67093 -1.03001 9.02248 182 189 208
2.67567 -1.19914 9.08579 200 209 213
2.6434 0.28885 8.61313 81 74 95
2.65486 -0.206082 8.75272 83 81 103
2.68941 -1.17466 9.09208 206 218 228
2.68931 -1.18644 9.0829 93 99 104
